ply
format ascii 1.0
comment Created by CloudCompare v2.11.3 (Anoia)
comment Created 10/22/25 7:14 PM
obj_info Generated by CloudCompare!
element vertex 1737
property float x
property float y
property float z
end_header
0.204175 -0.103071 0.452 
0.205681 -0.103299 0.453 
0.207191 -0.103527 0.454 
0.208706 -0.103755 0.455 
0.209764 -0.103755 0.455 
0.211286 -0.103983 0.456 
0.212347 -0.103983 0.456 
0.213407 -0.103983 0.456 
0.214468 -0.103983 0.456 
0.215529 -0.103983 0.456 
0.21659 -0.103983 0.456 
0.217651 -0.103983 0.456 
0.218711 -0.103983 0.456 
0.219772 -0.103983 0.456 
0.220833 -0.103983 0.456 
0.221894 -0.103983 0.456 
0.222955 -0.103983 0.456 
0.224015 -0.103983 0.456 
0.22557 -0.104211 0.457 
0.226633 -0.104211 0.457 
0.227696 -0.104211 0.457 
0.22926 -0.104439 0.458 
0.230828 -0.104667 0.459 
0.232401 -0.104895 0.46 
-0.108112 -0.109468 0.485 
-0.106984 -0.109468 0.485 
-0.105856 -0.109468 0.485 
-0.104512 -0.109242 0.484 
-0.103386 -0.109242 0.484 
-0.10226 -0.109242 0.484 
-0.100925 -0.109016 0.483 
-0.0998013 -0.109016 0.483 
-0.0982691 -0.108565 0.481 
-0.0969482 -0.108339 0.48 
-0.0956319 -0.108114 0.479 
-0.0943203 -0.107888 0.478 
-0.0930133 -0.107662 0.477 
-0.091711 -0.107436 0.476 
-0.0904134 -0.107211 0.475 
-0.0891204 -0.106985 0.474 
-0.087832 -0.106759 0.473 
-0.0865483 -0.106534 0.472 
-0.0852692 -0.106308 0.471 
-0.0839948 -0.106082 0.47 
-0.0829015 -0.106082 0.47 
-0.0816341 -0.105856 0.469 
-0.0801996 -0.105405 0.467 
-0.0792826 -0.105631 0.468 
-0.0776926 -0.104954 0.465 
-0.0764462 -0.104728 0.464 
-0.0752043 -0.104502 0.463 
-0.0739671 -0.104277 0.462 
-0.0727346 -0.104051 0.461 
-0.0715067 -0.103825 0.46 
-0.0702835 -0.103599 0.459 
-0.069065 -0.103374 0.458 
-0.0679995 -0.103374 0.458 
-0.0667879 -0.103148 0.457 
-0.065581 -0.102922 0.456 
-0.0643787 -0.102697 0.455 
-0.0631811 -0.102471 0.454 
-0.0621249 -0.102471 0.454 
-0.0609343 -0.102245 0.453 
-0.0597483 -0.102019 0.452 
-0.0583072 -0.101342 0.449 
-0.0573902 -0.101568 0.45 
-0.056093 -0.101117 0.448 
-0.0546822 -0.10044 0.445 
-0.0535264 -0.100214 0.444 
-0.0524935 -0.100214 0.444 
-0.0514606 -0.100214 0.444 
-0.0503142 -0.0999881 0.443 
-0.0491724 -0.0997624 0.442 
-0.0480352 -0.0995367 0.441 
-0.0470093 -0.0995367 0.441 
-0.0459834 -0.0995367 0.441 
-0.0448556 -0.099311 0.44 
-0.043832 -0.099311 0.44 
-0.0427112 -0.0990853 0.439 
-0.0416899 -0.0990853 0.439 
-0.040576 -0.0988596 0.438 
-0.0395571 -0.0988596 0.438 
-0.0384502 -0.0986339 0.437 
-0.0374336 -0.0986339 0.437 
-0.0363337 -0.0984082 0.436 
-0.0352384 -0.0981825 0.435 
-0.0342265 -0.0981825 0.435 
-0.0331382 -0.0979567 0.434 
-0.0320545 -0.097731 0.433 
-0.0309756 -0.0975053 0.432 
-0.0299012 -0.0972796 0.431 
-0.0288315 -0.0970539 0.43 
-0.0277665 -0.0968282 0.429 
-0.0267061 -0.0966025 0.428 
-0.0257105 -0.0966025 0.428 
-0.0247148 -0.0966025 0.428 
-0.0236637 -0.0963768 0.427 
-0.0226704 -0.0963768 0.427 
-0.0216263 -0.0961511 0.426 
-0.0206353 -0.0961511 0.426 
-0.0196443 -0.0961511 0.426 
-0.0186095 -0.0959254 0.425 
-0.0176208 -0.0959254 0.425 
-0.0166322 -0.0959254 0.425 
-0.0156435 -0.0959254 0.425 
-0.0146203 -0.0956997 0.424 
-0.013634 -0.0956997 0.424 
-0.0126476 -0.0956997 0.424 
-0.0116338 -0.095474 0.423 
-0.0106497 -0.095474 0.423 
-0.00966571 -0.095474 0.423 
-0.00866116 -0.0952483 0.422 
-0.00766127 -0.0950226 0.421 
-0.00668189 -0.0950226 0.421 
-0.00570252 -0.0950226 0.421 
-0.00471193 -0.0947969 0.42 
-0.00372599 -0.0945711 0.419 
-0.00275127 -0.0945711 0.419 
-0.00177655 -0.0945711 0.419 
-0.000799921 -0.0943454 0.418 
0.000172472 -0.0943454 0.418 
0.00114486 -0.0943454 0.418 
0.00211219 -0.0941197 0.417 
0.00308226 -0.0941197 0.417 
0.00405233 -0.0941197 0.417 
0.00502239 -0.0941197 0.417 
0.00597809 -0.093894 0.416 
0.00694583 -0.093894 0.416 
0.00791357 -0.093894 0.416 
0.00888131 -0.093894 0.416 
0.00984905 -0.093894 0.416 
0.0107908 -0.0936683 0.415 
0.0117562 -0.0936683 0.415 
0.0127216 -0.0936683 0.415 
0.013687 -0.0936683 0.415 
0.0146524 -0.0936683 0.415 
0.0155802 -0.0934426 0.414 
0.0165433 -0.0934426 0.414 
0.0175064 -0.0934426 0.414 
0.0184695 -0.0934426 0.414 
0.0193856 -0.0932169 0.413 
0.0203464 -0.0932169 0.413 
0.0213072 -0.0932169 0.413 
0.0222679 -0.0932169 0.413 
0.0232287 -0.0932169 0.413 
0.0241894 -0.0932169 0.413 
0.0250893 -0.0929912 0.412 
0.0260477 -0.0929912 0.412 
0.0270062 -0.0929912 0.412 
0.0279646 -0.0929912 0.412 
0.0289231 -0.0929912 0.412 
0.0298815 -0.0929912 0.412 
0.0308399 -0.0929912 0.412 
0.0317984 -0.0929912 0.412 
0.0326773 -0.0927655 0.411 
0.0336334 -0.0927655 0.411 
0.0345895 -0.0927655 0.411 
0.0355456 -0.0927655 0.411 
0.0365017 -0.0927655 0.411 
0.0374578 -0.0927655 0.411 
0.0384139 -0.0927655 0.411 
0.03937 -0.0927655 0.411 
0.0403262 -0.0927655 0.411 
0.0412823 -0.0927655 0.411 
0.0422384 -0.0927655 0.411 
0.0431945 -0.0927655 0.411 
0.0441506 -0.0927655 0.411 
0.0451067 -0.0927655 0.411 
0.0460628 -0.0927655 0.411 
0.0470189 -0.0927655 0.411 
0.047975 -0.0927655 0.411 
0.0489311 -0.0927655 0.411 
0.0498873 -0.0927655 0.411 
0.0508434 -0.0927655 0.411 
0.0517995 -0.0927655 0.411 
0.0527556 -0.0927655 0.411 
0.0537117 -0.0927655 0.411 
0.0546678 -0.0927655 0.411 
0.0556239 -0.0927655 0.411 
0.05658 -0.0927655 0.411 
0.0575361 -0.0927655 0.411 
0.0584922 -0.0927655 0.411 
0.0594483 -0.0927655 0.411 
0.0604044 -0.0927655 0.411 
0.0613606 -0.0927655 0.411 
0.0623167 -0.0927655 0.411 
0.0632728 -0.0927655 0.411 
0.0642289 -0.0927655 0.411 
0.065185 -0.0927655 0.411 
0.0661411 -0.0927655 0.411 
0.0670972 -0.0927655 0.411 
0.0680533 -0.0927655 0.411 
0.0690094 -0.0927655 0.411 
0.0699655 -0.0927655 0.411 
0.0709216 -0.0927655 0.411 
0.0718778 -0.0927655 0.411 
0.0728339 -0.0927655 0.411 
0.07379 -0.0927655 0.411 
0.0747461 -0.0927655 0.411 
0.0757022 -0.0927655 0.411 
0.0766583 -0.0927655 0.411 
0.0776144 -0.0927655 0.411 
0.0785705 -0.0927655 0.411 
0.0795266 -0.0927655 0.411 
0.0804827 -0.0927655 0.411 
0.0814388 -0.0927655 0.411 
0.082395 -0.0927655 0.411 
0.0833511 -0.0927655 0.411 
0.0843072 -0.0927655 0.411 
0.0852633 -0.0927655 0.411 
0.0862194 -0.0927655 0.411 
0.0871755 -0.0927655 0.411 
0.0881316 -0.0927655 0.411 
0.0890877 -0.0927655 0.411 
0.0900438 -0.0927655 0.411 
0.0909999 -0.0927655 0.411 
0.091956 -0.0927655 0.411 
0.0929122 -0.0927655 0.411 
0.0938683 -0.0927655 0.411 
0.0948244 -0.0927655 0.411 
0.0957805 -0.0927655 0.411 
0.0967366 -0.0927655 0.411 
0.0976927 -0.0927655 0.411 
0.0986488 -0.0927655 0.411 
0.0996049 -0.0927655 0.411 
0.100561 -0.0927655 0.411 
0.101517 -0.0927655 0.411 
0.102473 -0.0927655 0.411 
0.103429 -0.0927655 0.411 
0.104385 -0.0927655 0.411 
0.105342 -0.0927655 0.411 
0.106298 -0.0927655 0.411 
0.107515 -0.0929912 0.412 
0.108473 -0.0929912 0.412 
0.109432 -0.0929912 0.412 
0.11039 -0.0929912 0.412 
0.111348 -0.0929912 0.412 
0.112307 -0.0929912 0.412 
0.113265 -0.0929912 0.412 
0.114224 -0.0929912 0.412 
0.115462 -0.0932169 0.413 
0.116423 -0.0932169 0.413 
0.117383 -0.0932169 0.413 
0.118344 -0.0932169 0.413 
0.119594 -0.0934426 0.414 
0.120557 -0.0934426 0.414 
0.12152 -0.0934426 0.414 
0.122483 -0.0934426 0.414 
0.123744 -0.0936683 0.415 
0.12471 -0.0936683 0.415 
0.125675 -0.0936683 0.415 
0.12664 -0.0936683 0.415 
0.127913 -0.093894 0.416 
0.128881 -0.093894 0.416 
0.129849 -0.093894 0.416 
0.130817 -0.093894 0.416 
0.131784 -0.093894 0.416 
0.133071 -0.0941197 0.417 
0.134041 -0.0941197 0.417 
0.135011 -0.0941197 0.417 
0.135981 -0.0941197 0.417 
0.136951 -0.0941197 0.417 
0.138252 -0.0943454 0.418 
0.139225 -0.0943454 0.418 
0.140197 -0.0943454 0.418 
0.141507 -0.0945711 0.419 
0.142482 -0.0945711 0.419 
0.143799 -0.0947969 0.42 
0.144776 -0.0947969 0.42 
0.1461 -0.0950226 0.421 
0.147429 -0.0952483 0.422 
0.148411 -0.0952483 0.422 
0.149746 -0.095474 0.423 
0.15073 -0.095474 0.423 
0.152073 -0.0956997 0.424 
0.153059 -0.0956997 0.424 
0.154409 -0.0959254 0.425 
0.155398 -0.0959254 0.425 
0.156386 -0.0959254 0.425 
0.157745 -0.0961511 0.426 
0.158736 -0.0961511 0.426 
0.160102 -0.0963768 0.427 
0.161096 -0.0963768 0.427 
0.162089 -0.0963768 0.427 
0.163464 -0.0966025 0.428 
0.16446 -0.0966025 0.428 
0.165842 -0.0968282 0.429 
0.16684 -0.0968282 0.429 
0.168229 -0.0970539 0.43 
0.169623 -0.0972796 0.431 
0.171022 -0.0975053 0.432 
0.172425 -0.097731 0.433 
0.173833 -0.0979567 0.434 
0.174842 -0.0979567 0.434 
0.176257 -0.0981825 0.435 
0.177677 -0.0984082 0.436 
0.179101 -0.0986339 0.437 
0.180529 -0.0988596 0.438 
0.181963 -0.0990853 0.439 
0.183401 -0.099311 0.44 
0.184424 -0.099311 0.44 
0.185869 -0.0995367 0.441 
0.187319 -0.0997624 0.442 
0.188774 -0.0999881 0.443 
0.189804 -0.0999881 0.443 
0.190835 -0.0999881 0.443 
0.192298 -0.100214 0.444 
0.193767 -0.10044 0.445 
0.19524 -0.100665 0.446 
0.196717 -0.100891 0.447 
0.197757 -0.100891 0.447 
0.199686 -0.101342 0.449 
0.201178 -0.101568 0.45 
0.202674 -0.101794 0.451 
0.203723 -0.101794 0.451 
0.205227 -0.102019 0.452 
0.206734 -0.102245 0.453 
0.208247 -0.102471 0.454 
0.209764 -0.102697 0.455 
0.210822 -0.102697 0.455 
0.212347 -0.102922 0.456 
0.213407 -0.102922 0.456 
0.214468 -0.102922 0.456 
0.215529 -0.102922 0.456 
0.21659 -0.102922 0.456 
0.217651 -0.102922 0.456 
0.218711 -0.102922 0.456 
0.219772 -0.102922 0.456 
0.220833 -0.102922 0.456 
0.221894 -0.102922 0.456 
0.222955 -0.102922 0.456 
0.224015 -0.102922 0.456 
0.225076 -0.102922 0.456 
0.226137 -0.102922 0.456 
0.227198 -0.102922 0.456 
0.228759 -0.103148 0.457 
0.230828 -0.103599 0.459 
0.232401 -0.103825 0.46 
-0.108112 -0.10834 0.485 
-0.106984 -0.10834 0.485 
-0.105638 -0.108116 0.484 
-0.104512 -0.108116 0.484 
-0.103386 -0.108116 0.484 
-0.102049 -0.107893 0.483 
-0.100925 -0.107893 0.483 
-0.0995947 -0.107669 0.482 
-0.0982691 -0.107446 0.481 
-0.0969482 -0.107223 0.48 
-0.0956319 -0.106999 0.479 
-0.0943203 -0.106776 0.478 
-0.0930133 -0.106552 0.477 
-0.091711 -0.106329 0.476 
-0.0904134 -0.106106 0.475 
-0.0891204 -0.105882 0.474 
-0.087832 -0.105659 0.473 
-0.0865483 -0.105436 0.472 
-0.0852692 -0.105212 0.471 
-0.0839948 -0.104989 0.47 
-0.0829015 -0.104989 0.47 
-0.08146 -0.104542 0.468 
-0.0801996 -0.104319 0.467 
-0.0791132 -0.104319 0.467 
-0.0776926 -0.103872 0.465 
-0.0762814 -0.103425 0.463 
-0.0750419 -0.103202 0.462 
-0.0739671 -0.103202 0.462 
-0.0727346 -0.102978 0.461 
-0.0715067 -0.102755 0.46 
-0.0702835 -0.102532 0.459 
-0.069065 -0.102308 0.458 
-0.067851 -0.102085 0.457 
-0.0666418 -0.101862 0.456 
-0.0654372 -0.101638 0.455 
-0.0643787 -0.101638 0.455 
-0.0630419 -0.101191 0.453 
-0.0619881 -0.101191 0.453 
-0.0607998 -0.100968 0.452 
-0.0597483 -0.100968 0.452 
-0.0583072 -0.100298 0.449 
-0.0571352 -0.100074 0.448 
-0.0557174 -0.0994043 0.445 
-0.0546822 -0.0994043 0.445 
-0.0535264 -0.0991809 0.444 
-0.0524935 -0.0991809 0.444 
-0.0513447 -0.0989576 0.443 
-0.0502006 -0.0987342 0.442 
-0.0490611 -0.0985108 0.441 
-0.0480352 -0.0985108 0.441 
-0.0470093 -0.0985108 0.441 
-0.0458792 -0.0982874 0.44 
-0.0448556 -0.0982874 0.44 
-0.0437324 -0.098064 0.439 
-0.0427112 -0.098064 0.439 
-0.041595 -0.0978407 0.438 
-0.040576 -0.0978407 0.438 
-0.0394668 -0.0976173 0.437 
-0.0383622 -0.0973939 0.436 
-0.037348 -0.0973939 0.436 
-0.0362504 -0.0971705 0.435 
-0.0352384 -0.0971705 0.435 
-0.0341478 -0.0969471 0.434 
-0.0330618 -0.0967238 0.433 
-0.0319805 -0.0965004 0.432 
-0.0309038 -0.096277 0.431 
-0.0298318 -0.0960536 0.43 
-0.0287645 -0.0958302 0.429 
-0.0277665 -0.0958302 0.429 
-0.0267061 -0.0956068 0.428 
-0.0257105 -0.0956068 0.428 
-0.0246571 -0.0953835 0.427 
-0.0236637 -0.0953835 0.427 
-0.0226173 -0.0951601 0.426 
-0.0216263 -0.0951601 0.426 
-0.0206353 -0.0951601 0.426 
-0.0195982 -0.0949367 0.425 
-0.0186095 -0.0949367 0.425 
-0.0176208 -0.0949367 0.425 
-0.016593 -0.0947133 0.424 
-0.0156067 -0.0947133 0.424 
-0.0146203 -0.0947133 0.424 
-0.013634 -0.0947133 0.424 
-0.0126178 -0.0944899 0.423 
-0.0116338 -0.0944899 0.423 
-0.0106497 -0.0944899 0.423 
-0.00964286 -0.0942666 0.422 
-0.00866116 -0.0942666 0.422 
-0.00766127 -0.0940432 0.421 
-0.00668189 -0.0940432 0.421 
-0.00568898 -0.0938198 0.42 
-0.00470071 -0.0935964 0.419 
-0.00372599 -0.0935964 0.419 
-0.00274471 -0.093373 0.418 
-0.00177231 -0.093373 0.418 
-0.000799921 -0.093373 0.418 
0.000172059 -0.0931497 0.417 
0.00114213 -0.0931497 0.417 
0.00211219 -0.0931497 0.417 
0.00307487 -0.0929263 0.416 
0.00404261 -0.0929263 0.416 
0.00501035 -0.0929263 0.416 
0.00597809 -0.0929263 0.416 
0.00694583 -0.0929263 0.416 
0.00791357 -0.0929263 0.416 
0.00885996 -0.0927029 0.415 
0.00982537 -0.0927029 0.415 
0.0107908 -0.0927029 0.415 
0.0117562 -0.0927029 0.415 
0.0127216 -0.0927029 0.415 
0.0136541 -0.0924795 0.414 
0.0146171 -0.0924795 0.414 
0.0155802 -0.0924795 0.414 
0.0165433 -0.0924795 0.414 
0.0175064 -0.0924795 0.414 
0.0184249 -0.0922561 0.413 
0.0193856 -0.0922561 0.413 
0.0203464 -0.0922561 0.413 
0.0213072 -0.0922561 0.413 
0.022214 -0.0920328 0.412 
0.0231724 -0.0920328 0.412 
0.0241309 -0.0920328 0.412 
0.0250893 -0.0920328 0.412 
0.0260477 -0.0920328 0.412 
0.0270062 -0.0920328 0.412 
0.0279646 -0.0920328 0.412 
0.0289231 -0.0920328 0.412 
0.0298815 -0.0920328 0.412 
0.0307651 -0.0918094 0.411 
0.0317212 -0.0918094 0.411 
0.0326773 -0.0918094 0.411 
0.0336334 -0.0918094 0.411 
0.0345895 -0.0918094 0.411 
0.0355456 -0.0918094 0.411 
0.0365017 -0.0918094 0.411 
0.0374578 -0.0918094 0.411 
0.0384139 -0.0918094 0.411 
0.03937 -0.0918094 0.411 
0.0403262 -0.0918094 0.411 
0.0412823 -0.0918094 0.411 
0.0422384 -0.0918094 0.411 
0.0431945 -0.0918094 0.411 
0.0441506 -0.0918094 0.411 
0.0451067 -0.0918094 0.411 
0.0460628 -0.0918094 0.411 
0.0469045 -0.091586 0.41 
0.0478583 -0.091586 0.41 
0.0488121 -0.091586 0.41 
0.0497659 -0.091586 0.41 
0.0507197 -0.091586 0.41 
0.0516734 -0.091586 0.41 
0.0526272 -0.091586 0.41 
0.053581 -0.091586 0.41 
0.0545348 -0.091586 0.41 
0.0554886 -0.091586 0.41 
0.0564424 -0.091586 0.41 
0.0573961 -0.091586 0.41 
0.0583499 -0.091586 0.41 
0.0593037 -0.091586 0.41 
0.0602575 -0.091586 0.41 
0.0612113 -0.091586 0.41 
0.062165 -0.091586 0.41 
0.0631188 -0.091586 0.41 
0.0640726 -0.091586 0.41 
0.0650264 -0.091586 0.41 
0.0659802 -0.091586 0.41 
0.066934 -0.091586 0.41 
0.0678877 -0.091586 0.41 
0.0688415 -0.091586 0.41 
0.0697953 -0.091586 0.41 
0.0707491 -0.091586 0.41 
0.0717029 -0.091586 0.41 
0.0726567 -0.091586 0.41 
0.0736104 -0.091586 0.41 
0.0745642 -0.091586 0.41 
0.075518 -0.091586 0.41 
0.0764718 -0.091586 0.41 
0.0774256 -0.091586 0.41 
0.0783794 -0.091586 0.41 
0.0793331 -0.091586 0.41 
0.0802869 -0.091586 0.41 
0.0812407 -0.091586 0.41 
0.0821945 -0.091586 0.41 
0.0831483 -0.091586 0.41 
0.084102 -0.091586 0.41 
0.0850558 -0.091586 0.41 
0.0860096 -0.091586 0.41 
0.0869634 -0.091586 0.41 
0.0879172 -0.091586 0.41 
0.088871 -0.091586 0.41 
0.0898247 -0.091586 0.41 
0.0907785 -0.091586 0.41 
0.0917323 -0.091586 0.41 
0.0926861 -0.091586 0.41 
0.0936399 -0.091586 0.41 
0.0945937 -0.091586 0.41 
0.0955474 -0.091586 0.41 
0.0965012 -0.091586 0.41 
0.097455 -0.091586 0.41 
0.0984088 -0.091586 0.41 
0.0993626 -0.091586 0.41 
0.100316 -0.091586 0.41 
0.10127 -0.091586 0.41 
0.102224 -0.091586 0.41 
0.103429 -0.0918094 0.411 
0.104385 -0.0918094 0.411 
0.105342 -0.0918094 0.411 
0.106298 -0.0918094 0.411 
0.107254 -0.0918094 0.411 
0.10821 -0.0918094 0.411 
0.109166 -0.0918094 0.411 
0.110122 -0.0918094 0.411 
0.111348 -0.0920328 0.412 
0.112307 -0.0920328 0.412 
0.113265 -0.0920328 0.412 
0.114224 -0.0920328 0.412 
0.115182 -0.0920328 0.412 
0.116423 -0.0922561 0.413 
0.117383 -0.0922561 0.413 
0.118344 -0.0922561 0.413 
0.119305 -0.0922561 0.413 
0.120266 -0.0922561 0.413 
0.12152 -0.0924795 0.414 
0.122483 -0.0924795 0.414 
0.123446 -0.0924795 0.414 
0.124409 -0.0924795 0.414 
0.125675 -0.0927029 0.415 
0.12664 -0.0927029 0.415 
0.127606 -0.0927029 0.415 
0.128571 -0.0927029 0.415 
0.129537 -0.0927029 0.415 
0.130817 -0.0929263 0.416 
0.131784 -0.0929263 0.416 
0.132752 -0.0929263 0.416 
0.13372 -0.0929263 0.416 
0.134688 -0.0929263 0.416 
0.135981 -0.0931497 0.417 
0.136951 -0.0931497 0.417 
0.137922 -0.0931497 0.417 
0.138892 -0.0931497 0.417 
0.140197 -0.093373 0.418 
0.141169 -0.093373 0.418 
0.142142 -0.093373 0.418 
0.143457 -0.0935964 0.419 
0.144776 -0.0938198 0.42 
0.145753 -0.0938198 0.42 
0.14708 -0.0940432 0.421 
0.148411 -0.0942666 0.422 
0.149392 -0.0942666 0.422 
0.15073 -0.0944899 0.423 
0.151714 -0.0944899 0.423 
0.153059 -0.0947133 0.424 
0.154046 -0.0947133 0.424 
0.155398 -0.0949367 0.425 
0.156386 -0.0949367 0.425 
0.157745 -0.0951601 0.426 
0.158736 -0.0951601 0.426 
0.159727 -0.0951601 0.426 
0.160718 -0.0951601 0.426 
0.162089 -0.0953835 0.427 
0.163082 -0.0953835 0.427 
0.16446 -0.0956068 0.428 
0.165456 -0.0956068 0.428 
0.16684 -0.0958302 0.429 
0.167838 -0.0958302 0.429 
0.16923 -0.0960536 0.43 
0.170626 -0.096277 0.431 
0.172027 -0.0965004 0.432 
0.173432 -0.0967238 0.433 
0.174439 -0.0967238 0.433 
0.175852 -0.0969471 0.434 
0.177269 -0.0971705 0.435 
0.178691 -0.0973939 0.436 
0.180117 -0.0976173 0.437 
0.181548 -0.0978407 0.438 
0.182984 -0.098064 0.439 
0.184424 -0.0982874 0.44 
0.185869 -0.0985108 0.441 
0.186895 -0.0985108 0.441 
0.188347 -0.0987342 0.442 
0.189804 -0.0989576 0.443 
0.190835 -0.0989576 0.443 
0.191865 -0.0989576 0.443 
0.193331 -0.0991809 0.444 
0.194802 -0.0994043 0.445 
0.196277 -0.0996277 0.446 
0.197315 -0.0996277 0.446 
0.199242 -0.100074 0.448 
0.200731 -0.100298 0.449 
0.202225 -0.100521 0.45 
0.203723 -0.100745 0.451 
0.204772 -0.100745 0.451 
0.205822 -0.100745 0.451 
0.207788 -0.101191 0.453 
0.209303 -0.101415 0.454 
0.210822 -0.101638 0.455 
0.211881 -0.101638 0.455 
0.212939 -0.101638 0.455 
0.214468 -0.101862 0.456 
0.215529 -0.101862 0.456 
0.21659 -0.101862 0.456 
0.217651 -0.101862 0.456 
0.218711 -0.101862 0.456 
0.219772 -0.101862 0.456 
0.220833 -0.101862 0.456 
0.221894 -0.101862 0.456 
0.222955 -0.101862 0.456 
0.224015 -0.101862 0.456 
0.225076 -0.101862 0.456 
0.226137 -0.101862 0.456 
0.227198 -0.101862 0.456 
0.228259 -0.101862 0.456 
0.230828 -0.102532 0.459 
-0.108112 -0.107211 0.485 
-0.106764 -0.10699 0.484 
-0.105638 -0.10699 0.484 
-0.104512 -0.10699 0.484 
-0.103172 -0.106769 0.483 
-0.102049 -0.106769 0.483 
-0.100716 -0.106548 0.482 
-0.0995947 -0.106548 0.482 
-0.0982691 -0.106327 0.481 
-0.0969482 -0.106106 0.48 
-0.0956319 -0.105885 0.479 
-0.0943203 -0.105664 0.478 
-0.0930133 -0.105443 0.477 
-0.091711 -0.105222 0.476 
-0.0904134 -0.105001 0.475 
-0.0891204 -0.10478 0.474 
-0.087832 -0.104559 0.473 
-0.0865483 -0.104338 0.472 
-0.0852692 -0.104117 0.471 
-0.0839948 -0.103895 0.47 
-0.0829015 -0.103895 0.47 
-0.0812859 -0.103232 0.467 
-0.0800278 -0.103011 0.466 
-0.0791132 -0.103232 0.467 
-0.0775255 -0.102569 0.464 
-0.0762814 -0.102348 0.463 
-0.0752043 -0.102348 0.463 
-0.0739671 -0.102127 0.462 
-0.0727346 -0.101906 0.461 
-0.0715067 -0.101685 0.46 
-0.0702835 -0.101464 0.459 
-0.069065 -0.101243 0.458 
-0.067851 -0.101022 0.457 
-0.0666418 -0.100801 0.456 
-0.0654372 -0.10058 0.455 
-0.0642372 -0.100359 0.454 
-0.0630419 -0.100138 0.453 
-0.0619881 -0.100138 0.453 
-0.0607998 -0.0999165 0.452 
-0.0593517 -0.0992533 0.449 
-0.0581773 -0.0990323 0.448 
-0.0568801 -0.0985902 0.446 
-0.0557174 -0.0983691 0.445 
-0.0545593 -0.0981481 0.444 
-0.0535264 -0.0981481 0.444 
-0.0523753 -0.097927 0.443 
-0.0512288 -0.097706 0.442 
-0.050087 -0.0974849 0.441 
-0.0490611 -0.0974849 0.441 
-0.0480352 -0.0974849 0.441 
-0.0469027 -0.0972638 0.44 
-0.0458792 -0.0972638 0.44 
-0.0447537 -0.0970428 0.439 
-0.0437324 -0.0970428 0.439 
-0.0426139 -0.0968217 0.438 
-0.041595 -0.0968217 0.438 
-0.0404834 -0.0966007 0.437 
-0.0393765 -0.0963796 0.436 
-0.0383622 -0.0963796 0.436 
-0.0372623 -0.0961586 0.435 
-0.036167 -0.0959375 0.434 
-0.0351574 -0.0959375 0.434 
-0.0340691 -0.0957165 0.433 
-0.0329855 -0.0954954 0.432 
-0.0319065 -0.0952744 0.431 
-0.0309038 -0.0952744 0.431 
-0.0298318 -0.0950533 0.43 
-0.0287645 -0.0948322 0.429 
-0.0277018 -0.0946112 0.428 
-0.0267061 -0.0946112 0.428 
-0.0256504 -0.0943901 0.427 
-0.0246571 -0.0943901 0.427 
-0.0236083 -0.0941691 0.426 
-0.0226173 -0.0941691 0.426 
-0.0216263 -0.0941691 0.426 
-0.0205869 -0.093948 0.425 
-0.0195982 -0.093948 0.425 
-0.0186095 -0.093948 0.425 
-0.0175794 -0.093727 0.424 
-0.016593 -0.093727 0.424 
-0.0156067 -0.093727 0.424 
-0.0145858 -0.0935059 0.423 
-0.0136018 -0.0935059 0.423 
-0.0126178 -0.0935059 0.423 
-0.0116338 -0.0935059 0.423 
-0.0106246 -0.0932849 0.422 
-0.00964286 -0.0932849 0.422 
-0.00864064 -0.0930638 0.421 
-0.00766127 -0.0930638 0.421 
-0.00666602 -0.0928428 0.42 
-0.00567543 -0.0926217 0.419 
-0.00470071 -0.0926217 0.419 
-0.0037171 -0.0924006 0.418 
-0.00274471 -0.0924006 0.418 
-0.00177231 -0.0924006 0.418 
-0.000798008 -0.0921796 0.417 
0.000172059 -0.0921796 0.417 
0.00113939 -0.0919585 0.416 
0.00210713 -0.0919585 0.416 
0.00307487 -0.0919585 0.416 
0.00404261 -0.0919585 0.416 
0.00501035 -0.0919585 0.416 
0.00597809 -0.0919585 0.416 
0.00692913 -0.0917375 0.415 
0.00789455 -0.0917375 0.415 
0.00885996 -0.0917375 0.415 
0.00982537 -0.0917375 0.415 
0.0107908 -0.0917375 0.415 
0.0117562 -0.0917375 0.415 
0.012691 -0.0915164 0.414 
0.0136541 -0.0915164 0.414 
0.0146171 -0.0915164 0.414 
0.0155802 -0.0915164 0.414 
0.0165034 -0.0912954 0.413 
0.0174641 -0.0912954 0.413 
0.0184249 -0.0912954 0.413 
0.0193856 -0.0912954 0.413 
0.0203464 -0.0912954 0.413 
0.0212556 -0.0910743 0.412 
0.022214 -0.0910743 0.412 
0.0231724 -0.0910743 0.412 
0.0241309 -0.0910743 0.412 
0.0250893 -0.0910743 0.412 
0.0259845 -0.0908533 0.411 
0.0269406 -0.0908533 0.411 
0.0278967 -0.0908533 0.411 
0.0288529 -0.0908533 0.411 
0.029809 -0.0908533 0.411 
0.0307651 -0.0908533 0.411 
0.0317212 -0.0908533 0.411 
0.0326773 -0.0908533 0.411 
0.0335516 -0.0906322 0.41 
0.0345053 -0.0906322 0.41 
0.0354591 -0.0906322 0.41 
0.0364129 -0.0906322 0.41 
0.0373667 -0.0906322 0.41 
0.0383205 -0.0906322 0.41 
0.0392743 -0.0906322 0.41 
0.040228 -0.0906322 0.41 
0.0411818 -0.0906322 0.41 
0.0421356 -0.0906322 0.41 
0.0430894 -0.0906322 0.41 
0.0440432 -0.0906322 0.41 
0.044997 -0.0906322 0.41 
0.0459507 -0.0906322 0.41 
0.0469045 -0.0906322 0.41 
0.0478583 -0.0906322 0.41 
0.0488121 -0.0906322 0.41 
0.0497659 -0.0906322 0.41 
0.0507197 -0.0906322 0.41 
0.0516734 -0.0906322 0.41 
0.0526272 -0.0906322 0.41 
0.053581 -0.0906322 0.41 
0.0545348 -0.0906322 0.41 
0.0554886 -0.0906322 0.41 
0.0564424 -0.0906322 0.41 
0.0573961 -0.0906322 0.41 
0.0583499 -0.0906322 0.41 
0.0593037 -0.0906322 0.41 
0.0602575 -0.0906322 0.41 
0.0612113 -0.0906322 0.41 
0.062165 -0.0906322 0.41 
0.0631188 -0.0906322 0.41 
0.0640726 -0.0906322 0.41 
0.0650264 -0.0906322 0.41 
0.0659802 -0.0906322 0.41 
0.066934 -0.0906322 0.41 
0.0678877 -0.0906322 0.41 
0.0688415 -0.0906322 0.41 
0.0697953 -0.0906322 0.41 
0.0707491 -0.0906322 0.41 
0.0717029 -0.0906322 0.41 
0.0726567 -0.0906322 0.41 
0.0736104 -0.0906322 0.41 
0.0745642 -0.0906322 0.41 
0.075518 -0.0906322 0.41 
0.0764718 -0.0906322 0.41 
0.0774256 -0.0906322 0.41 
0.0783794 -0.0906322 0.41 
0.0793331 -0.0906322 0.41 
0.0802869 -0.0906322 0.41 
0.0812407 -0.0906322 0.41 
0.0821945 -0.0906322 0.41 
0.0831483 -0.0906322 0.41 
0.084102 -0.0906322 0.41 
0.0850558 -0.0906322 0.41 
0.0860096 -0.0906322 0.41 
0.0869634 -0.0906322 0.41 
0.0879172 -0.0906322 0.41 
0.088871 -0.0906322 0.41 
0.0898247 -0.0906322 0.41 
0.0907785 -0.0906322 0.41 
0.0917323 -0.0906322 0.41 
0.0926861 -0.0906322 0.41 
0.0936399 -0.0906322 0.41 
0.0945937 -0.0906322 0.41 
0.0955474 -0.0906322 0.41 
0.0965012 -0.0906322 0.41 
0.097455 -0.0906322 0.41 
0.0984088 -0.0906322 0.41 
0.0993626 -0.0906322 0.41 
0.100316 -0.0906322 0.41 
0.10127 -0.0906322 0.41 
0.102224 -0.0906322 0.41 
0.103178 -0.0906322 0.41 
0.104131 -0.0906322 0.41 
0.105342 -0.0908533 0.411 
0.106298 -0.0908533 0.411 
0.107254 -0.0908533 0.411 
0.10821 -0.0908533 0.411 
0.109166 -0.0908533 0.411 
0.110122 -0.0908533 0.411 
0.111078 -0.0908533 0.411 
0.112034 -0.0908533 0.411 
0.113265 -0.0910743 0.412 
0.114224 -0.0910743 0.412 
0.115182 -0.0910743 0.412 
0.116141 -0.0910743 0.412 
0.117099 -0.0910743 0.412 
0.118058 -0.0910743 0.412 
0.119305 -0.0912954 0.413 
0.120266 -0.0912954 0.413 
0.121226 -0.0912954 0.413 
0.122187 -0.0912954 0.413 
0.123446 -0.0915164 0.414 
0.124409 -0.0915164 0.414 
0.125372 -0.0915164 0.414 
0.126335 -0.0915164 0.414 
0.127298 -0.0915164 0.414 
0.128571 -0.0917375 0.415 
0.129537 -0.0917375 0.415 
0.130502 -0.0917375 0.415 
0.131468 -0.0917375 0.415 
0.132752 -0.0919585 0.416 
0.13372 -0.0919585 0.416 
0.134688 -0.0919585 0.416 
0.135655 -0.0919585 0.416 
0.136623 -0.0919585 0.416 
0.137591 -0.0919585 0.416 
0.138892 -0.0921796 0.417 
0.139862 -0.0921796 0.417 
0.140832 -0.0921796 0.417 
0.142142 -0.0924006 0.418 
0.143114 -0.0924006 0.418 
0.144431 -0.0926217 0.419 
0.145753 -0.0928428 0.42 
0.14673 -0.0928428 0.42 
0.148059 -0.0930638 0.421 
0.149392 -0.0932849 0.422 
0.150374 -0.0932849 0.422 
0.151714 -0.0935059 0.423 
0.152698 -0.0935059 0.423 
0.154046 -0.093727 0.424 
0.155032 -0.093727 0.424 
0.156386 -0.093948 0.425 
0.157375 -0.093948 0.425 
0.158736 -0.0941691 0.426 
0.159727 -0.0941691 0.426 
0.160718 -0.0941691 0.426 
0.161709 -0.0941691 0.426 
0.163082 -0.0943901 0.427 
0.164076 -0.0943901 0.427 
0.165456 -0.0946112 0.428 
0.166451 -0.0946112 0.428 
0.167838 -0.0948322 0.429 
0.16923 -0.0950533 0.43 
0.17023 -0.0950533 0.43 
0.171628 -0.0952744 0.431 
0.173032 -0.0954954 0.432 
0.174037 -0.0954954 0.432 
0.175447 -0.0957165 0.433 
0.176861 -0.0959375 0.434 
0.178281 -0.0961586 0.435 
0.179705 -0.0963796 0.436 
0.181134 -0.0966007 0.437 
0.182567 -0.0968217 0.438 
0.184005 -0.0970428 0.439 
0.185448 -0.0972638 0.44 
0.186895 -0.0974849 0.441 
0.188347 -0.097706 0.442 
0.189376 -0.097706 0.442 
0.190404 -0.097706 0.442 
0.191865 -0.097927 0.443 
0.192896 -0.097927 0.443 
0.194364 -0.0981481 0.444 
0.195837 -0.0983691 0.445 
0.196872 -0.0983691 0.445 
0.198797 -0.0988112 0.447 
0.200284 -0.0990323 0.448 
0.201775 -0.0992533 0.449 
0.203272 -0.0994744 0.45 
0.204318 -0.0994744 0.45 
0.205365 -0.0994744 0.45 
0.207329 -0.0999165 0.452 
0.208842 -0.100138 0.453 
0.210359 -0.100359 0.454 
0.211415 -0.100359 0.454 
0.212939 -0.10058 0.455 
0.213998 -0.10058 0.455 
0.215056 -0.10058 0.455 
0.216115 -0.10058 0.455 
0.217173 -0.10058 0.455 
0.218232 -0.10058 0.455 
0.21929 -0.10058 0.455 
0.220349 -0.10058 0.455 
0.221407 -0.10058 0.455 
0.222466 -0.10058 0.455 
0.223524 -0.10058 0.455 
0.224583 -0.10058 0.455 
0.225641 -0.10058 0.455 
0.226699 -0.10058 0.455 
0.227758 -0.10058 0.455 
0.230828 -0.101464 0.459 
-0.109241 -0.106083 0.485 
-0.108112 -0.106083 0.485 
-0.106764 -0.105864 0.484 
-0.105638 -0.105864 0.484 
-0.104296 -0.105646 0.483 
-0.103172 -0.105646 0.483 
-0.101837 -0.105427 0.482 
-0.100716 -0.105427 0.482 
-0.0993881 -0.105208 0.481 
-0.0982691 -0.105208 0.481 
-0.0969482 -0.104989 0.48 
-0.0956319 -0.104771 0.479 
-0.0943203 -0.104552 0.478 
-0.0930133 -0.104333 0.477 
-0.091711 -0.104114 0.476 
-0.0904134 -0.103896 0.475 
-0.0891204 -0.103677 0.474 
-0.087832 -0.103458 0.473 
-0.0865483 -0.10324 0.472 
-0.0852692 -0.103021 0.471 
-0.0839948 -0.102802 0.47 
-0.0827251 -0.102583 0.469 
-0.0812859 -0.102146 0.467 
-0.0800278 -0.101927 0.466 
-0.0789438 -0.101927 0.466 
-0.0775255 -0.10149 0.464 
-0.0762814 -0.101271 0.463 
-0.0750419 -0.101052 0.462 
-0.0739671 -0.101052 0.462 
-0.0727346 -0.100834 0.461 
-0.0715067 -0.100615 0.46 
-0.0702835 -0.100396 0.459 
-0.0689142 -0.0999586 0.457 
-0.0677026 -0.0997399 0.456 
-0.0664956 -0.0995212 0.455 
-0.0652933 -0.0993025 0.454 
-0.0640957 -0.0990837 0.453 
-0.0629027 -0.098865 0.452 
-0.0618512 -0.098865 0.452 
-0.0603962 -0.0982088 0.449 
-0.0592195 -0.0979901 0.448 
-0.0580475 -0.0977714 0.447 
-0.0567526 -0.0973339 0.445 
-0.0557174 -0.0973339 0.445 
-0.0545593 -0.0971152 0.444 
-0.0534058 -0.0968965 0.443 
-0.0522571 -0.0966777 0.442 
-0.0512288 -0.0966777 0.442 
-0.050087 -0.096459 0.441 
-0.0490611 -0.096459 0.441 
-0.0479263 -0.0962403 0.44 
-0.0469027 -0.0962403 0.44 
-0.0458792 -0.0962403 0.44 
-0.0447537 -0.0960215 0.439 
-0.0436328 -0.0958028 0.438 
-0.0425166 -0.0955841 0.437 
-0.0415 -0.0955841 0.437 
-0.0403908 -0.0953654 0.436 
-0.0392862 -0.0951466 0.435 
-0.0382742 -0.0951466 0.435 
-0.0371766 -0.0949279 0.434 
-0.0360837 -0.0947092 0.433 
-0.0350764 -0.0947092 0.433 
-0.0339904 -0.0944904 0.432 
-0.0329855 -0.0944904 0.432 
-0.0319065 -0.0942717 0.431 
-0.0308321 -0.094053 0.43 
-0.0297625 -0.0938343 0.429 
-0.0286974 -0.0936155 0.428 
-0.0277018 -0.0936155 0.428 
-0.0266437 -0.0933968 0.427 
-0.0256504 -0.0933968 0.427 
-0.0245993 -0.0931781 0.426 
-0.0236083 -0.0931781 0.426 
-0.0226173 -0.0931781 0.426 
-0.0215755 -0.0929593 0.425 
-0.0205869 -0.0929593 0.425 
-0.0195982 -0.0929593 0.425 
-0.0185657 -0.0927406 0.424 
-0.0175794 -0.0927406 0.424 
-0.016593 -0.0927406 0.424 
-0.0155699 -0.0925219 0.423 
-0.0145858 -0.0925219 0.423 
-0.0136018 -0.0925219 0.423 
-0.012588 -0.0923032 0.422 
-0.0116063 -0.0923032 0.422 
-0.0106246 -0.0923032 0.422 
-0.00962001 -0.0920844 0.421 
-0.00864064 -0.0920844 0.421 
-0.00764307 -0.0918657 0.42 
-0.00665015 -0.091647 0.419 
-0.00567543 -0.091647 0.419 
-0.00468949 -0.0914283 0.418 
-0.0037171 -0.0914283 0.418 
-0.00273814 -0.0912095 0.417 
-0.00176807 -0.0912095 0.417 
-0.000798008 -0.0912095 0.417 
0.000171646 -0.0909908 0.416 
0.00113939 -0.0909908 0.416 
0.00210713 -0.0909908 0.416 
0.00307487 -0.0909908 0.416 
0.00404261 -0.0909908 0.416 
0.0049983 -0.0907721 0.415 
0.00596372 -0.0907721 0.415 
0.00692913 -0.0907721 0.415 
0.00789455 -0.0907721 0.415 
0.00885996 -0.0907721 0.415 
0.00982537 -0.0907721 0.415 
0.0107648 -0.0905533 0.414 
0.0117279 -0.0905533 0.414 
0.012691 -0.0905533 0.414 
0.0136541 -0.0905533 0.414 
0.0146171 -0.0905533 0.414 
0.0155426 -0.0903346 0.413 
0.0165034 -0.0903346 0.413 
0.0174641 -0.0903346 0.413 
0.0184249 -0.0903346 0.413 
0.0193387 -0.0901159 0.412 
0.0202971 -0.0901159 0.412 
0.0212556 -0.0901159 0.412 
0.022214 -0.0901159 0.412 
0.0231724 -0.0901159 0.412 
0.0240723 -0.0898972 0.411 
0.0250284 -0.0898972 0.411 
0.0259845 -0.0898972 0.411 
0.0269406 -0.0898972 0.411 
0.0278967 -0.0898972 0.411 
0.0288529 -0.0898972 0.411 
0.029809 -0.0898972 0.411 
0.0306902 -0.0896784 0.41 
0.031644 -0.0896784 0.41 
0.0325978 -0.0896784 0.41 
0.0335516 -0.0896784 0.41 
0.0345053 -0.0896784 0.41 
0.0354591 -0.0896784 0.41 
0.0364129 -0.0896784 0.41 
0.0373667 -0.0896784 0.41 
0.0383205 -0.0896784 0.41 
0.0392743 -0.0896784 0.41 
0.040228 -0.0896784 0.41 
0.0411818 -0.0896784 0.41 
0.0421356 -0.0896784 0.41 
0.0430894 -0.0896784 0.41 
0.0440432 -0.0896784 0.41 
0.044997 -0.0896784 0.41 
0.0459507 -0.0896784 0.41 
0.0469045 -0.0896784 0.41 
0.0478583 -0.0896784 0.41 
0.0488121 -0.0896784 0.41 
0.0497659 -0.0896784 0.41 
0.0507197 -0.0896784 0.41 
0.0516734 -0.0896784 0.41 
0.0526272 -0.0896784 0.41 
0.053581 -0.0896784 0.41 
0.0545348 -0.0896784 0.41 
0.0554886 -0.0896784 0.41 
0.0564424 -0.0896784 0.41 
0.0573961 -0.0896784 0.41 
0.0583499 -0.0896784 0.41 
0.0593037 -0.0896784 0.41 
0.0602575 -0.0896784 0.41 
0.0612113 -0.0896784 0.41 
0.062165 -0.0896784 0.41 
0.0631188 -0.0896784 0.41 
0.0640726 -0.0896784 0.41 
0.0650264 -0.0896784 0.41 
0.0659802 -0.0896784 0.41 
0.066934 -0.0896784 0.41 
0.0678877 -0.0896784 0.41 
0.0688415 -0.0896784 0.41 
0.0697953 -0.0896784 0.41 
0.0707491 -0.0896784 0.41 
0.0717029 -0.0896784 0.41 
0.0726567 -0.0896784 0.41 
0.0736104 -0.0896784 0.41 
0.0745642 -0.0896784 0.41 
0.075518 -0.0896784 0.41 
0.0764718 -0.0896784 0.41 
0.0774256 -0.0896784 0.41 
0.0783794 -0.0896784 0.41 
0.0793331 -0.0896784 0.41 
0.0802869 -0.0896784 0.41 
0.0812407 -0.0896784 0.41 
0.0821945 -0.0896784 0.41 
0.0831483 -0.0896784 0.41 
0.084102 -0.0896784 0.41 
0.0850558 -0.0896784 0.41 
0.0860096 -0.0896784 0.41 
0.0869634 -0.0896784 0.41 
0.0879172 -0.0896784 0.41 
0.088871 -0.0896784 0.41 
0.0898247 -0.0896784 0.41 
0.0907785 -0.0896784 0.41 
0.0917323 -0.0896784 0.41 
0.0926861 -0.0896784 0.41 
0.0936399 -0.0896784 0.41 
0.0945937 -0.0896784 0.41 
0.0955474 -0.0896784 0.41 
0.0965012 -0.0896784 0.41 
0.097455 -0.0896784 0.41 
0.0984088 -0.0896784 0.41 
0.0993626 -0.0896784 0.41 
0.100316 -0.0896784 0.41 
0.10127 -0.0896784 0.41 
0.102224 -0.0896784 0.41 
0.103178 -0.0896784 0.41 
0.104131 -0.0896784 0.41 
0.105085 -0.0896784 0.41 
0.106039 -0.0896784 0.41 
0.107254 -0.0898972 0.411 
0.10821 -0.0898972 0.411 
0.109166 -0.0898972 0.411 
0.110122 -0.0898972 0.411 
0.111078 -0.0898972 0.411 
0.112034 -0.0898972 0.411 
0.11299 -0.0898972 0.411 
0.114224 -0.0901159 0.412 
0.115182 -0.0901159 0.412 
0.116141 -0.0901159 0.412 
0.117099 -0.0901159 0.412 
0.118058 -0.0901159 0.412 
0.119016 -0.0901159 0.412 
0.120266 -0.0903346 0.413 
0.121226 -0.0903346 0.413 
0.122187 -0.0903346 0.413 
0.123148 -0.0903346 0.413 
0.124109 -0.0903346 0.413 
0.125372 -0.0905533 0.414 
0.126335 -0.0905533 0.414 
0.127298 -0.0905533 0.414 
0.128262 -0.0905533 0.414 
0.129225 -0.0905533 0.414 
0.130502 -0.0907721 0.415 
0.131468 -0.0907721 0.415 
0.132433 -0.0907721 0.415 
0.133398 -0.0907721 0.415 
0.134364 -0.0907721 0.415 
0.135329 -0.0907721 0.415 
0.136623 -0.0909908 0.416 
0.137591 -0.0909908 0.416 
0.138559 -0.0909908 0.416 
0.139526 -0.0909908 0.416 
0.140832 -0.0912095 0.417 
0.141802 -0.0912095 0.417 
0.142772 -0.0912095 0.417 
0.144087 -0.0914283 0.418 
0.145406 -0.091647 0.419 
0.146381 -0.091647 0.419 
0.147707 -0.0918657 0.42 
0.149038 -0.0920844 0.421 
0.150374 -0.0923032 0.422 
0.151356 -0.0923032 0.422 
0.152698 -0.0925219 0.423 
0.154046 -0.0927406 0.424 
0.155032 -0.0927406 0.424 
0.156018 -0.0927406 0.424 
0.157375 -0.0929593 0.425 
0.158364 -0.0929593 0.425 
0.159727 -0.0931781 0.426 
0.160718 -0.0931781 0.426 
0.161709 -0.0931781 0.426 
0.163082 -0.0933968 0.427 
0.164076 -0.0933968 0.427 
0.165069 -0.0933968 0.427 
0.166451 -0.0936155 0.428 
0.167838 -0.0938343 0.429 
0.168836 -0.0938343 0.429 
0.17023 -0.094053 0.43 
0.17123 -0.094053 0.43 
0.172631 -0.0942717 0.431 
0.174037 -0.0944904 0.432 
0.175447 -0.0947092 0.433 
0.176861 -0.0949279 0.434 
0.177871 -0.0949279 0.434 
0.179293 -0.0951466 0.435 
0.180719 -0.0953654 0.436 
0.18215 -0.0955841 0.437 
0.183586 -0.0958028 0.438 
0.185027 -0.0960215 0.439 
0.186472 -0.0962403 0.44 
0.187921 -0.096459 0.441 
0.188947 -0.096459 0.441 
0.190404 -0.0966777 0.442 
0.191432 -0.0966777 0.442 
0.192896 -0.0968965 0.443 
0.193926 -0.0968965 0.443 
0.195397 -0.0971152 0.444 
0.19643 -0.0971152 0.444 
0.198352 -0.0975526 0.446 
0.199837 -0.0977714 0.447 
0.201326 -0.0979901 0.448 
0.202368 -0.0979901 0.448 
0.203864 -0.0982088 0.449 
0.204909 -0.0982088 0.449 
0.206871 -0.0986463 0.451 
0.208381 -0.098865 0.452 
0.209896 -0.0990837 0.453 
0.21095 -0.0990837 0.453 
0.212471 -0.0993025 0.454 
0.213528 -0.0993025 0.454 
0.214584 -0.0993025 0.454 
0.21564 -0.0993025 0.454 
0.216696 -0.0993025 0.454 
0.217752 -0.0993025 0.454 
0.218808 -0.0993025 0.454 
0.219864 -0.0993025 0.454 
0.220921 -0.0993025 0.454 
0.221977 -0.0993025 0.454 
0.223033 -0.0993025 0.454 
0.224089 -0.0993025 0.454 
0.225145 -0.0993025 0.454 
0.226699 -0.0995212 0.455 
0.227758 -0.0995212 0.455 
0.230828 -0.100396 0.459 
-0.109241 -0.104955 0.485 
-0.107889 -0.104738 0.484 
-0.106764 -0.104738 0.484 
-0.105419 -0.104522 0.483 
-0.104296 -0.104522 0.483 
-0.102959 -0.104306 0.482 
-0.101837 -0.104306 0.482 
-0.100507 -0.104089 0.481 
-0.0993881 -0.104089 0.481 
-0.0980648 -0.103873 0.48 
-0.0967462 -0.103656 0.479 
-0.0954323 -0.10344 0.478 
-0.094123 -0.103224 0.477 
-0.0928183 -0.103007 0.476 
-0.0915184 -0.102791 0.475 
-0.090223 -0.102574 0.474 
-0.0889323 -0.102358 0.473 
-0.0876463 -0.102142 0.472 
-0.0863649 -0.101925 0.471 
-0.0850882 -0.101709 0.47 
-0.0838161 -0.101492 0.469 
-0.0825487 -0.101276 0.468 
-0.0812859 -0.10106 0.467 
-0.0800278 -0.100843 0.466 
-0.0787744 -0.100627 0.465 
-0.0775255 -0.10041 0.464 
-0.0762814 -0.100194 0.463 
-0.0750419 -0.0999775 0.462 
-0.073807 -0.0997611 0.461 
-0.0725768 -0.0995447 0.46 
-0.0713513 -0.0993283 0.459 
-0.0701304 -0.0991119 0.458 
-0.0687634 -0.0986791 0.456 
-0.0675541 -0.0984627 0.455 
-0.0663495 -0.0982463 0.454 
-0.0651495 -0.0980299 0.453 
-0.0639542 -0.0978135 0.452 
-0.0627636 -0.0975971 0.451 
-0.0617144 -0.0975971 0.451 
-0.0603962 -0.0971643 0.449 
-0.0592195 -0.0969479 0.448 
-0.0580475 -0.0967315 0.447 
-0.0567526 -0.0962987 0.445 
-0.0555922 -0.0960823 0.444 
-0.0545593 -0.0960823 0.444 
-0.0534058 -0.0958659 0.443 
-0.0522571 -0.0956495 0.442 
-0.0511129 -0.0954331 0.441 
-0.050087 -0.0954331 0.441 
-0.0489499 -0.0952167 0.44 
-0.0479263 -0.0952167 0.44 
-0.0469027 -0.0952167 0.44 
-0.0457749 -0.0950003 0.439 
-0.0446517 -0.0947839 0.438 
-0.0435332 -0.0945675 0.437 
-0.0425166 -0.0945675 0.437 
-0.041405 -0.0943511 0.436 
-0.0402981 -0.0941347 0.435 
-0.0392862 -0.0941347 0.435 
-0.0381863 -0.0939183 0.434 
-0.037091 -0.0937019 0.433 
-0.0360837 -0.0937019 0.433 
-0.0349954 -0.0934855 0.432 
-0.0339118 -0.0932691 0.431 
-0.0329091 -0.0932691 0.431 
-0.0318325 -0.0930527 0.43 
-0.0307604 -0.0928363 0.429 
-0.0297625 -0.0928363 0.429 
-0.0286974 -0.0926199 0.428 
-0.027637 -0.0924035 0.427 
-0.0266437 -0.0924035 0.427 
-0.0256504 -0.0924035 0.427 
-0.0245993 -0.0921871 0.426 
-0.0236083 -0.0921871 0.426 
-0.0225642 -0.0919707 0.425 
-0.0215755 -0.0919707 0.425 
-0.0205384 -0.0917543 0.424 
-0.0195521 -0.0917543 0.424 
-0.0185657 -0.0917543 0.424 
-0.0175379 -0.0915379 0.423 
-0.0165539 -0.0915379 0.423 
-0.0155699 -0.0915379 0.423 
-0.0145858 -0.0915379 0.423 
-0.0135697 -0.0913215 0.422 
-0.012588 -0.0913215 0.422 
-0.0115788 -0.0911051 0.421 
-0.0105994 -0.0911051 0.421 
-0.00962001 -0.0911051 0.421 
-0.00862011 -0.0908887 0.42 
-0.00764307 -0.0908887 0.42 
-0.00665015 -0.0906723 0.419 
-0.00567543 -0.0906723 0.419 
-0.00468949 -0.0904559 0.418 
-0.0037171 -0.0904559 0.418 
-0.00273814 -0.0902395 0.417 
-0.00176807 -0.0902395 0.417 
-0.000796094 -0.0900231 0.416 
0.000171646 -0.0900231 0.416 
0.00113939 -0.0900231 0.416 
0.00210713 -0.0900231 0.416 
0.00306748 -0.0898067 0.415 
0.00403289 -0.0898067 0.415 
0.0049983 -0.0898067 0.415 
0.00596372 -0.0898067 0.415 
0.00692913 -0.0898067 0.415 
0.00789455 -0.0898067 0.415 
0.00885996 -0.0898067 0.415 
0.0098017 -0.0895903 0.414 
0.0107648 -0.0895903 0.414 
0.0117279 -0.0895903 0.414 
0.012691 -0.0895903 0.414 
0.0136211 -0.0893739 0.413 
0.0145818 -0.0893739 0.413 
0.0155426 -0.0893739 0.413 
0.0165034 -0.0893739 0.413 
0.0174641 -0.0893739 0.413 
0.0183803 -0.0891575 0.412 
0.0193387 -0.0891575 0.412 
0.0202971 -0.0891575 0.412 
0.0212556 -0.0891575 0.412 
0.0221601 -0.0889411 0.411 
0.0231162 -0.0889411 0.411 
0.0240723 -0.0889411 0.411 
0.0250284 -0.0889411 0.411 
0.0259845 -0.0889411 0.411 
0.0268751 -0.0887247 0.41 
0.0278289 -0.0887247 0.41 
0.0287827 -0.0887247 0.41 
0.0297364 -0.0887247 0.41 
0.0306902 -0.0887247 0.41 
0.031644 -0.0887247 0.41 
0.0325978 -0.0887247 0.41 
0.0335516 -0.0887247 0.41 
0.0344212 -0.0885082 0.409 
0.0353726 -0.0885082 0.409 
0.0363241 -0.0885082 0.409 
0.0372756 -0.0885082 0.409 
0.038227 -0.0885082 0.409 
0.0391785 -0.0885082 0.409 
0.0401299 -0.0885082 0.409 
0.0410814 -0.0885082 0.409 
0.0420328 -0.0885082 0.409 
0.0429843 -0.0885082 0.409 
0.0439357 -0.0885082 0.409 
0.0448872 -0.0885082 0.409 
0.0458387 -0.0885082 0.409 
0.0467901 -0.0885082 0.409 
0.0477416 -0.0885082 0.409 
0.048693 -0.0885082 0.409 
0.0496445 -0.0885082 0.409 
0.0505959 -0.0885082 0.409 
0.0515474 -0.0885082 0.409 
0.0524989 -0.0885082 0.409 
0.0534503 -0.0885082 0.409 
0.0544018 -0.0885082 0.409 
0.0553532 -0.0885082 0.409 
0.0563047 -0.0885082 0.409 
0.0572561 -0.0885082 0.409 
0.0582076 -0.0885082 0.409 
0.0591591 -0.0885082 0.409 
0.0601105 -0.0885082 0.409 
0.061062 -0.0885082 0.409 
0.0620134 -0.0885082 0.409 
0.0629649 -0.0885082 0.409 
0.0639163 -0.0885082 0.409 
0.0648678 -0.0885082 0.409 
0.0658192 -0.0885082 0.409 
0.0667707 -0.0885082 0.409 
0.0677222 -0.0885082 0.409 
0.0686736 -0.0885082 0.409 
0.0696251 -0.0885082 0.409 
0.0705765 -0.0885082 0.409 
0.071528 -0.0885082 0.409 
0.0724794 -0.0885082 0.409 
0.0734309 -0.0885082 0.409 
0.0743823 -0.0885082 0.409 
0.0753338 -0.0885082 0.409 
0.0762853 -0.0885082 0.409 
0.0772367 -0.0885082 0.409 
0.0781882 -0.0885082 0.409 
0.0791396 -0.0885082 0.409 
0.0800911 -0.0885082 0.409 
0.0810425 -0.0885082 0.409 
0.081994 -0.0885082 0.409 
0.0829455 -0.0885082 0.409 
0.0838969 -0.0885082 0.409 
0.0848484 -0.0885082 0.409 
0.0857998 -0.0885082 0.409 
0.0867513 -0.0885082 0.409 
0.0877027 -0.0885082 0.409 
0.0886542 -0.0885082 0.409 
0.0896057 -0.0885082 0.409 
0.0905571 -0.0885082 0.409 
0.0915086 -0.0885082 0.409 
0.09246 -0.0885082 0.409 
0.0934115 -0.0885082 0.409 
0.0943629 -0.0885082 0.409 
0.0953144 -0.0885082 0.409 
0.0962659 -0.0885082 0.409 
0.0972173 -0.0885082 0.409 
0.0981688 -0.0885082 0.409 
0.0991202 -0.0885082 0.409 
0.100072 -0.0885082 0.409 
0.101023 -0.0885082 0.409 
0.101975 -0.0885082 0.409 
0.102926 -0.0885082 0.409 
0.104131 -0.0887247 0.41 
0.105085 -0.0887247 0.41 
0.106039 -0.0887247 0.41 
0.106993 -0.0887247 0.41 
0.107947 -0.0887247 0.41 
0.109166 -0.0889411 0.411 
0.110122 -0.0889411 0.411 
0.111078 -0.0889411 0.411 
0.112034 -0.0889411 0.411 
0.11299 -0.0889411 0.411 
0.113947 -0.0889411 0.411 
0.114903 -0.0889411 0.411 
0.116141 -0.0891575 0.412 
0.117099 -0.0891575 0.412 
0.118058 -0.0891575 0.412 
0.119016 -0.0891575 0.412 
0.119974 -0.0891575 0.412 
0.120933 -0.0891575 0.412 
0.121891 -0.0891575 0.412 
0.12285 -0.0891575 0.412 
0.124109 -0.0893739 0.413 
0.125069 -0.0893739 0.413 
0.12603 -0.0893739 0.413 
0.126991 -0.0893739 0.413 
0.128262 -0.0895903 0.414 
0.129225 -0.0895903 0.414 
0.130188 -0.0895903 0.414 
0.131151 -0.0895903 0.414 
0.132433 -0.0898067 0.415 
0.133398 -0.0898067 0.415 
0.134364 -0.0898067 0.415 
0.135329 -0.0898067 0.415 
0.136295 -0.0898067 0.415 
0.13726 -0.0898067 0.415 
0.138225 -0.0898067 0.415 
0.139526 -0.0900231 0.416 
0.140494 -0.0900231 0.416 
0.141462 -0.0900231 0.416 
0.142772 -0.0902395 0.417 
0.143742 -0.0902395 0.417 
0.145059 -0.0904559 0.418 
0.146031 -0.0904559 0.418 
0.147356 -0.0906723 0.419 
0.148684 -0.0908887 0.42 
0.150018 -0.0911051 0.421 
0.151356 -0.0913215 0.422 
0.152337 -0.0913215 0.422 
0.153682 -0.0915379 0.423 
0.154666 -0.0915379 0.423 
0.156018 -0.0917543 0.424 
0.157005 -0.0917543 0.424 
0.158364 -0.0919707 0.425 
0.159352 -0.0919707 0.425 
0.160718 -0.0921871 0.426 
0.161709 -0.0921871 0.426 
0.1627 -0.0921871 0.426 
0.164076 -0.0924035 0.427 
0.165069 -0.0924035 0.427 
0.166451 -0.0926199 0.428 
0.167447 -0.0926199 0.428 
0.168836 -0.0928363 0.429 
0.169834 -0.0928363 0.429 
0.17123 -0.0930527 0.43 
0.172631 -0.0932691 0.431 
0.173634 -0.0932691 0.431 
0.175041 -0.0934855 0.432 
0.176454 -0.0937019 0.433 
0.177871 -0.0939183 0.434 
0.178881 -0.0939183 0.434 
0.180305 -0.0941347 0.435 
0.181734 -0.0943511 0.436 
0.183167 -0.0945675 0.437 
0.184605 -0.0947839 0.438 
0.186048 -0.0950003 0.439 
0.187495 -0.0952167 0.44 
0.188947 -0.0954331 0.441 
0.189973 -0.0954331 0.441 
0.191432 -0.0956495 0.442 
0.19246 -0.0956495 0.442 
0.193489 -0.0956495 0.442 
0.194957 -0.0958659 0.443 
0.195987 -0.0958659 0.443 
0.197907 -0.0962987 0.445 
0.19939 -0.0965151 0.446 
0.200877 -0.0967315 0.447 
0.201916 -0.0967315 0.447 
0.20341 -0.0969479 0.448 
0.204453 -0.0969479 0.448 
0.206412 -0.0973807 0.45 
0.20792 -0.0975971 0.451 
0.209432 -0.0978135 0.452 
0.21095 -0.0980299 0.453 
0.212003 -0.0980299 0.453 
0.213057 -0.0980299 0.453 
0.214584 -0.0982463 0.454 
0.21564 -0.0982463 0.454 
0.216696 -0.0982463 0.454 
0.217752 -0.0982463 0.454 
0.218808 -0.0982463 0.454 
0.219864 -0.0982463 0.454 
0.220921 -0.0982463 0.454 
0.221977 -0.0982463 0.454 
0.223033 -0.0982463 0.454 
0.224089 -0.0982463 0.454 
0.225145 -0.0982463 0.454 
0.226201 -0.0982463 0.454 
0.227758 -0.0984627 0.455 
0.230828 -0.0993283 0.459 
-0.107889 -0.103612 0.484 
-0.106543 -0.103398 0.483 
-0.105419 -0.103398 0.483 
-0.10408 -0.103184 0.482 
-0.102959 -0.103184 0.482 
-0.101626 -0.10297 0.481 
-0.100507 -0.10297 0.481 
-0.0991815 -0.102756 0.48 
-0.0980648 -0.102756 0.48 
-0.0967462 -0.102542 0.479 
-0.0954323 -0.102328 0.478 
-0.094123 -0.102114 0.477 
-0.0928183 -0.1019 0.476 
-0.0915184 -0.101686 0.475 
-0.090223 -0.101472 0.474 
-0.0889323 -0.101258 0.473 
-0.0876463 -0.101044 0.472 
-0.0863649 -0.100829 0.471 
-0.0850882 -0.100615 0.47 
-0.0838161 -0.100401 0.469 
-0.0825487 -0.100187 0.468 
-0.0812859 -0.0999732 0.467 
-0.0800278 -0.0997591 0.466 
-0.0787744 -0.099545 0.465 
-0.0775255 -0.0993309 0.464 
-0.0762814 -0.0991169 0.463 
-0.0750419 -0.0989028 0.462 
-0.0736469 -0.0984746 0.46 
-0.0724191 -0.0982606 0.459 
-0.0711958 -0.0980465 0.458 
-0.0699773 -0.0978324 0.457 
-0.0687634 -0.0976183 0.456 
-0.0675541 -0.0974043 0.455 
-0.0663495 -0.0971902 0.454 
-0.0651495 -0.0969761 0.453 
-0.0639542 -0.096762 0.452 
-0.0627636 -0.096548 0.451 
-0.0615776 -0.0963339 0.45 
-0.0602617 -0.0959057 0.448 
-0.0590873 -0.0956917 0.447 
-0.0580475 -0.0956917 0.447 
-0.0567526 -0.0952635 0.445 
-0.0555922 -0.0950494 0.444 
-0.0544364 -0.0948354 0.443 
-0.0534058 -0.0948354 0.443 
-0.0522571 -0.0946213 0.442 
-0.0511129 -0.0944072 0.441 
-0.0499735 -0.0941931 0.44 
-0.0489499 -0.0941931 0.44 
-0.0479263 -0.0941931 0.44 
-0.0467962 -0.0939791 0.439 
-0.0456706 -0.093765 0.438 
-0.0446517 -0.093765 0.438 
-0.0435332 -0.0935509 0.437 
-0.0424193 -0.0933368 0.436 
-0.0413101 -0.0931228 0.435 
-0.0402981 -0.0931228 0.435 
-0.0391959 -0.0929087 0.434 
-0.0380983 -0.0926946 0.433 
-0.037091 -0.0926946 0.433 
-0.0360004 -0.0924805 0.432 
-0.0349144 -0.0922665 0.431 
-0.0338331 -0.0920524 0.43 
-0.0328328 -0.0920524 0.43 
-0.0317584 -0.0918383 0.429 
-0.0307604 -0.0918383 0.429 
-0.0296931 -0.0916242 0.428 
-0.0286974 -0.0916242 0.428 
-0.027637 -0.0914102 0.427 
-0.0266437 -0.0914102 0.427 
-0.0255903 -0.0911961 0.426 
-0.0245993 -0.0911961 0.426 
-0.0235529 -0.090982 0.425 
-0.0225642 -0.090982 0.425 
-0.0215248 -0.0907679 0.424 
-0.0205384 -0.0907679 0.424 
-0.0195521 -0.0907679 0.424 
-0.0185219 -0.0905538 0.423 
-0.0175379 -0.0905538 0.423 
-0.0165539 -0.0905538 0.423 
-0.0155699 -0.0905538 0.423 
-0.0145514 -0.0903398 0.422 
-0.0135697 -0.0903398 0.422 
-0.0125581 -0.0901257 0.421 
-0.0115788 -0.0901257 0.421 
-0.0105994 -0.0901257 0.421 
-0.00959716 -0.0899116 0.42 
-0.00862011 -0.0899116 0.42 
-0.00762487 -0.0896975 0.419 
-0.00665015 -0.0896975 0.419 
-0.00566189 -0.0894835 0.418 
-0.00468949 -0.0894835 0.418 
-0.00370821 -0.0892694 0.417 
-0.00273814 -0.0892694 0.417 
-0.00176383 -0.0890553 0.416 
-0.000796094 -0.0890553 0.416 
0.000171646 -0.0890553 0.416 
0.00113939 -0.0890553 0.416 
0.00210206 -0.0888412 0.415 
0.00306748 -0.0888412 0.415 
0.00403289 -0.0888412 0.415 
0.0049983 -0.0888412 0.415 
0.00596372 -0.0888412 0.415 
0.00692913 -0.0888412 0.415 
0.00787552 -0.0886272 0.414 
0.00883861 -0.0886272 0.414 
0.0098017 -0.0886272 0.414 
0.0107648 -0.0886272 0.414 
0.0116995 -0.0884131 0.413 
0.0126603 -0.0884131 0.413 
0.0136211 -0.0884131 0.413 
0.0145818 -0.0884131 0.413 
0.0155426 -0.0884131 0.413 
0.0164634 -0.088199 0.412 
0.0174218 -0.088199 0.412 
0.0183803 -0.088199 0.412 
0.0193387 -0.088199 0.412 
0.0202479 -0.0879849 0.411 
0.021204 -0.0879849 0.411 
0.0221601 -0.0879849 0.411 
0.0231162 -0.0879849 0.411 
0.0240723 -0.0879849 0.411 
0.0249675 -0.0877709 0.41 
0.0259213 -0.0877709 0.41 
0.0268751 -0.0877709 0.41 
0.0278289 -0.0877709 0.41 
0.0287827 -0.0877709 0.41 
0.0297364 -0.0877709 0.41 
0.0306154 -0.0875568 0.409 
0.0315668 -0.0875568 0.409 
0.0325183 -0.0875568 0.409 
0.0334697 -0.0875568 0.409 
0.0344212 -0.0875568 0.409 
0.0353726 -0.0875568 0.409 
0.0363241 -0.0875568 0.409 
0.0372756 -0.0875568 0.409 
0.038227 -0.0875568 0.409 
0.0391785 -0.0875568 0.409 
0.0401299 -0.0875568 0.409 
0.0410814 -0.0875568 0.409 
0.0420328 -0.0875568 0.409 
0.0429843 -0.0875568 0.409 
0.0439357 -0.0875568 0.409 
0.0448872 -0.0875568 0.409 
0.0458387 -0.0875568 0.409 
